# .PCD v0.7 - Point Cloud Data file format
VERSION 0.7
FIELDS x y z
SIZE 4 4 4
TYPE F F F
COUNT 1 1 1
WIDTH 1493
HEIGHT 1
VIEWPOINT 0 0 0 1 0 0 0
POINTS 1493
DATA ascii
-3.7593472 -2.6646094 3.88677
2.6565998 -2.522151 3.8926549
2.5894372 -2.4247682 3.8838279
2.6224265 -2.4626794 3.8824697
1.7906625 -2.3122268 3.8926549
1.8341331 -2.3291891 3.8772221
2.4991567 -2.3056664 3.8926549
2.5453675 -2.3559947 3.8788385
1.7576602 -2.2507393 3.8884735
1.8092471 -2.2714155 3.8531129
2.4939086 -2.2715538 3.8926549
1.7316213 -2.1875842 3.8926549
-1.9617327 -1.8202168 3.8926549
-2.5144432 -1.7052857 3.8750608
-2.4538517 -1.7119151 3.854933
-2.3777516 -1.7171849 3.8337548
-2.0227556 -1.7156101 3.8860347
-1.9792265 -1.7218148 3.8926547
1.4396749 -1.7426794 3.8661742
-2.5282922 -1.6600684 3.8548071
-2.4428954 -1.6437308 3.8754776
-2.3812339 -1.6593586 3.8444633
-2.0369542 -1.6492743 3.8550155
-1.9766411 -1.6435385 3.8869803
-2.4378345 -1.5834208 3.8245881
-2.3785574 -1.5769926 3.8245881
-2.1043394 -1.5220875 3.8575859
-2.0498044 -1.5507991 3.8530626
-1.9746225 -1.5946741 3.8775232
-1.3336438 -1.5457292 3.8821342
-1.2704505 -1.5193805 3.8260255
-2.1034813 -1.4979311 3.8400514
-2.0672131 -1.4672545 3.8585947
-1.506897 -1.4134887 3.8926551
-1.4406708 -1.4172373 3.8926547
-1.3634684 -1.4598296 3.8863497
-1.2654878 -1.4518882 3.8369167
-0.2528185 -1.4430093 3.8926549
-1.4476238 -1.351346 3.8772967
-1.3844411 -1.3872482 3.8926549
-1.2456658 -1.3775809 3.8558428
-0.34419176 -1.3122752 3.8926547
-0.28671253 -1.3128999 3.8926551
-1.9157879 -1.2084359 3.8662639
-1.8961314 -1.2101245 3.8926549
-1.5096941 -1.2040719 3.8662937
-0.34231421 -1.2538657 3.8896456
-0.28889924 -1.2757258 3.8926547
1.4644685 -1.2068584 3.8324256
1.5452524 -1.2367536 3.8373837
-2.0131676 -1.106901 3.8531127
-1.9332095 -1.1385491 3.8257105
-1.862015 -1.1367816 3.8580651
-1.7603393 -1.1153928 3.8750246
-1.6477224 -1.1173203 3.8693104
-1.5387592 -1.1494652 3.8435163
-1.4502394 -1.1538643 3.8663266
-1.3540338 -1.1266223 3.8618624
-0.36106065 -1.1904442 3.8926549
1.353034 -1.1379843 3.848561
1.4303415 -1.1609077 3.8298361
-2.0243902 -1.0780127 3.8662937
-1.9563484 -1.0650979 3.8466842
-1.847177 -1.0500767 3.8539054
-1.7685941 -1.0569335 3.8775573
-1.6508977 -1.0941502 3.8827693
-1.5716761 -1.093914 3.8531127
-1.4042841 -1.0609829 3.8750012
-1.3579763 -1.0681086 3.8638217
-0.64970642 -1.0198808 3.8926549
1.2758538 -1.0402087 3.8402114
1.3447411 -1.0679014 3.8556757
1.4643356 -1.088178 3.8500247
1.5384595 -1.0775509 3.8489156
-1.9186285 -0.97196907 3.8737912
-1.8519446 -0.96451306 3.874887
-1.7679228 -0.95782197 3.8671124
-1.4173449 -0.98910421 3.8750012
-1.3666565 -0.99677598 3.8794146
-1.0486841 -0.91169453 3.8882411
-0.95147252 -0.94115919 3.8926549
-1.8239584 -0.84550774 3.8786356
-1.7769587 -0.81793576 3.8761492
-1.0507262 -0.85884511 3.8784683
-0.75466853 -0.83619708 3.8926551
-0.59722543 -0.84275723 3.8926549
-1.8245023 -0.74276096 3.8712659
-1.7654217 -0.74952257 3.8794394
-1.6954741 -0.74263763 3.8838279
-1.0573807 -0.77431709 3.8550301
-0.59722543 -0.78371602 3.8926549
-1.8417186 -0.6455639 3.8594496
-1.7514892 -0.64670801 3.8472655
-1.6570309 -0.62744057 3.850322
-1.5605994 -0.62147105 3.839138
-1.4851274 -0.60080725 3.8142793
-1.3503023 -0.63140661 3.8575265
-1.840672 -0.56598169 3.8648615
-1.7422873 -0.57551914 3.8571858
-1.6445605 -0.55006284 3.8558438
-1.5594437 -0.54961228 3.8483312
-1.4627179 -0.54450059 3.8457561
-1.3589491 -0.54240704 3.8447433
-1.854847 -0.44847146 3.8772078
-1.64237 -0.45377427 3.8703394
-1.5522428 -0.45090085 3.8514769
-1.4577187 -0.45280334 3.8549731
-1.3679276 -0.44907707 3.8532007
-0.5576337 -0.43793926 3.8815048
-0.40479484 -0.40760183 3.8926551
-0.38730118 -0.41634867 3.8926551
-1.8787414 -0.32380071 3.8838279
-1.6443306 -0.35704866 3.866174
-1.5574297 -0.37316969 3.8402276
-1.4304818 -0.35259175 3.8358872
-1.3560385 -0.34805754 3.8515489
-1.2968372 -0.30926827 3.8661742
-0.55585015 -0.35201824 3.8689611
-0.40698159 -0.3769879 3.8926547
-0.38355255 -0.36949059 3.8926547
0.73254919 -0.31154507 3.8142793
-1.8809649 -0.23841886 3.8794143
-1.432708 -0.25531143 3.8532653
-1.3488529 -0.25204197 3.8508112
-1.2527263 -0.24117893 3.8750095
-1.149087 -0.24168646 3.8498437
-1.0880744 -0.22725701 3.8593259
-0.56114471 -0.2884261 3.8926549
0.7292819 -0.27203101 3.8375442
-1.9092517 -0.12770288 3.8926549
-1.8666703 -0.14346465 3.8414268
-1.4337381 -0.14162248 3.8523593
-1.3467739 -0.14633995 3.847302
-1.2523673 -0.14642076 3.870558
-1.1516519 -0.14100382 3.8556936
-1.0863947 -0.14860986 3.8594363
-0.52052569 -0.10534587 3.8750012
-1.9092517 -0.0096205035 3.8926549
-1.8783705 -0.048561476 3.8599708
-1.5189174 -0.012167076 3.8613048
-1.4339749 -0.078131631 3.8207219
-1.3357639 -0.06177156 3.8275225
-1.2518204 -0.045916144 3.8586538
-1.1495451 -0.050401665 3.8481023
-1.0669966 -0.040937535 3.8570476
-0.96213043 -0.022562895 3.8565555
-0.88391036 -0.015930131 3.8271654
-0.62134528 -0.04234381 3.8794146
-0.52355224 -0.048819359 3.8813057
-1.9092517 0.0034997596 3.8926549
-1.8514619 0.048483737 3.8498616
-1.5238794 0.049218394 3.857163
-1.4906973 0.06257464 3.8545642
-1.2312196 0.011464355 3.8142793
-1.1680104 0.0077146604 3.8142793
-1.0660187 0.0034292943 3.8142791
-0.62028497 0.049235471 3.8727946
-0.53226125 0.047429699 3.8869801
-0.4529025 0.088781469 3.8926549
-1.9158332 0.12768409 3.8794146
-1.8765228 0.15847637 3.8342574
-1.6095814 0.17287907 3.8661742
-1.5400773 0.16771062 3.8472054
-1.4889067 0.13407545 3.8216422
-0.515791 0.13622938 3.8661737
-0.45436028 0.13470238 3.8926549
-1.9407403 0.28164935 3.8926549
-1.8697104 0.23400319 3.8185742
-0.86095697 0.22348282 3.8400514
-1.937767 0.35837311 3.8755829
-1.870656 0.34559739 3.8277705
-1.9318768 0.44827187 3.8603179
-1.8743458 0.45212513 3.8214374
-1.9263287 0.55236191 3.8688939
-1.8887573 0.54094499 3.8245881
-1.9223838 0.64285654 3.885433
-1.8726162 0.64689511 3.817961
-1.9207373 0.75723141 3.8893445
-1.8802905 0.75674516 3.842345
-1.9522696 0.86572099 3.8852398
-1.8758558 0.84663314 3.8310828
-2.027334 0.98314601 3.8926551
-1.9289392 0.93836659 3.8882411
-1.8731838 0.94702053 3.8569713
-2.1454165 1.0531209 3.8926549
-2.027334 1.0181335 3.8926547
-1.8831664 1.0168275 3.8794146
-2.9349203 1.777303 3.88784
-2.9588728 1.8009758 3.8926551
-3.3524806 2.7981157 3.8926549
-3.3551044 2.858469 3.8926549
-3.3563628 2.9572771 3.8902473
-3.3426569 3.0332088 3.8860343
2.9735451 -3.1041858 3.974319
2.8931262 -3.0078828 3.9651191
2.9487147 -3.0521734 3.9442182
-3.7219789 -2.9166489 3.9743187
2.7860079 -2.9032533 3.974319
2.849643 -2.9515591 3.9448166
-3.7369022 -2.8486037 3.9564834
2.7521853 -2.8452041 3.9477277
2.8070288 -2.8830245 3.9195008
-3.8112824 -2.7023206 3.974319
-3.764287 -2.755007 3.9422679
2.6935513 -2.753988 3.9651194
2.718997 -2.7515666 3.9349372
-3.8289146 -2.6456053 3.9571173
-3.7879841 -2.6756198 3.9285736
2.6750247 -2.6252615 3.9416404
2.7027071 -2.6432753 3.9263053
-3.8594964 -2.5781379 3.9687989
2.591773 -2.5080857 3.974319
2.6459606 -2.5533707 3.9444089
2.7013428 -2.5989933 3.9195008
2.5656717 -2.4397988 3.9497855
2.6109047 -2.4817767 3.9311659
1.6746111 -2.3064613 3.9674189
1.7470076 -2.3331554 3.9383378
1.8160925 -2.3683364 3.9240372
2.4856133 -2.3312171 3.9639933
2.5194077 -2.3629124 3.9393654
1.6798553 -2.227715 3.9687991
1.7200963 -2.2533877 3.9425497
2.4689522 -2.2608092 3.9395118
2.5031815 -2.2951462 3.9195008
1.6812785 -2.1779301 3.9440739
1.7138393 -2.1795521 3.9195008
1.6701018 -2.0299451 3.9549394
1.713856 -2.0425267 3.9341574
1.5502719 -1.9153342 3.974319
1.64815 -1.954475 3.9562938
1.7169048 -1.970157 3.9341574
-1.9726198 -1.8116329 3.9195008
1.4748068 -1.8186011 3.9605193
1.5575017 -1.8604318 3.9530253
1.6183579 -1.8566691 3.9285736
-2.5235081 -1.7006626 3.9195008
-2.4475462 -1.7039653 3.9195008
-2.0178299 -1.7615787 3.9195013
-1.9516393 -1.7398901 3.9281259
-1.8825592 -1.7124727 3.9467194
1.460754 -1.7834458 3.9468462
1.5268807 -1.7825692 3.9399147
-2.5289865 -1.6822885 3.938374
-2.4615183 -1.6705574 3.9291077
-1.9443636 -1.6569599 3.9378922
-1.8825592 -1.6925189 3.9467194
-1.4000899 -1.6038884 3.974319
-2.0293918 -1.5510124 3.9421182
-1.9716649 -1.5628535 3.9524953
-1.5266134 -1.5369718 3.9590285
-1.4348823 -1.5363891 3.957495
-1.3596927 -1.5414964 3.9380548
-2.0395355 -1.4856392 3.9331102
-1.522228 -1.4660048 3.9502413
-1.4536749 -1.4575578 3.9345086
-1.3575642 -1.4369942 3.9475472
-1.2364771 -1.4315159 3.9332051
-0.25786474 -1.4232368 3.9195011
-0.15590437 -1.4221128 3.9495556
-1.5100894 -1.393213 3.9467194
-1.4392128 -1.382597 3.9396522
-1.3782786 -1.3877846 3.93771
-0.2403506 -1.3463342 3.9281304
-0.14558388 -1.3406811 3.9494157
-0.076168552 -1.336585 3.9587946
1.58825 -1.3046414 3.9605193
-1.8710575 -1.212486 3.9586024
-0.34373462 -1.231681 3.9195008
-0.24401012 -1.2514588 3.9229743
-0.14579837 -1.2463684 3.9508705
-0.074427187 -1.249405 3.9695189
1.4455745 -1.2224433 3.9537148
1.5580277 -1.2735319 3.9263055
-2.0820966 -1.1005582 3.9467194
-1.8641456 -1.1807731 3.9303882
-1.7424688 -1.1209075 3.9249444
-1.6638634 -1.1166058 3.9332051
-1.5300832 -1.1559886 3.9467831
-1.4547695 -1.1369985 3.9434125
-1.3475592 -1.1322528 3.9344907
-1.2795303 -1.1149522 3.974319
-1.1080678 -1.1350455 3.974319
-1.0914624 -1.1400058 3.9586027
-0.2293644 -1.1652387 3.9203796
-0.16155012 -1.1577755 3.9468083
1.2877927 -1.1193897 3.9195008
1.3262349 -1.1303689 3.9423101
1.4414353 -1.1434258 3.9423101
1.5130634 -1.1031235 3.9559193
-2.0256679 -1.0678999 3.949115
-1.978191 -1.0364053 3.9359081
-1.7396322 -1.0506697 3.9410584
-1.6410097 -1.0740659 3.9403117
-1.5240194 -1.0333452 3.9586024
-1.4670898 -1.034541 3.9509544
-1.3717095 -1.058104 3.9468338
-1.135271 -1.0423071 3.9743192
-1.0713847 -1.068068 3.9743192
-0.98929411 -1.0502073 3.9743187
-0.8493855 -1.0219277 3.974319
-0.70888138 -1.043956 3.974319
-0.68198341 -1.0282216 3.9528952
1.2811873 -1.0203091 3.9195008
1.3398019 -1.0453581 3.9560463
1.4222941 -1.0758334 3.9537144
1.5534858 -1.0853812 3.9399147
-1.9337842 -0.95162046 3.9531767
-1.8789734 -0.93059212 3.9272778
-1.7525954 -0.97128749 3.943738
-1.507254 -0.9876948 3.974319
-1.4456414 -0.96565342 3.9592996
-1.3855727 -0.97077948 3.93311
-1.135916 -0.94493675 3.9577842
-1.0579062 -0.95846575 3.9502649
-0.93566322 -0.97844243 3.9467545
-0.87438542 -0.97095448 3.9697192
-0.7744922 -0.9242335 3.9605191
-0.66099012 -0.92935944 3.9400103
-1.9091195 -0.8470419 3.9743192
-1.8721269 -0.85881615 3.9303882
-1.7714424 -0.83038306 3.9537146
-1.4020035 -0.83077604 3.9743192
-1.3748051 -0.81925619 3.963279
-1.1351435 -0.85519832 3.9512691
-1.0721272 -0.83836102 3.9195008
-0.76277167 -0.87802821 3.949913
-0.63554496 -0.84480476 3.9562755
-0.58813345 -0.80893707 3.9195008
-1.9118164 -0.75791579 3.963279
-1.8827128 -0.75149786 3.9297078
-1.7547257 -0.75740087 3.9285741
-1.4068799 -0.7658416 3.963279
-1.3670762 -0.74817741 3.9358325
-1.1117291 -0.78044468 3.9651191
-1.0939271 -0.77195311 3.9331102
-0.61847812 -0.76490664 3.9573936
-0.58413213 -0.74244052 3.9340434
-1.9339899 -0.65217263 3.9703763
-1.6515987 -0.65701354 3.9195008
-1.3453722 -0.6509006 3.9632792
-0.58296359 -0.69299352 3.974319
-1.9225193 -0.54659426 3.971559
-1.895916 -0.54824865 3.9358318
-1.7427518 -0.53948003 3.9507713
-1.6978363 -0.52490604 3.9195011
-1.4657314 -0.5515303 3.927278
-1.3199519 -0.55265731 3.9669595
-1.2890682 -0.54770142 3.968405
-0.5708257 -0.53686231 3.9315982
-0.32895711 -0.53764617 3.927062
-0.27084604 -0.54255199 3.9568868
-1.9145043 -0.45274502 3.9577591
-1.885429 -0.43507296 3.9195008
-1.7354369 -0.46420309 3.9651194
-1.6550452 -0.42064071 3.9331424
-1.5921502 -0.40600929 3.9195008
-1.4755104 -0.47236049 3.9318733
-1.3528959 -0.43592811 3.9428859
-0.67003441 -0.41168773 3.974319
-0.58775556 -0.45521483 3.9547141
-0.34012213 -0.44775304 3.9259472
-0.27956679 -0.4543429 3.9569409
-1.9180325 -0.33788219 3.9467194
-1.859692 -0.38490552 3.9351633
-1.7315218 -0.37843198 3.9664338
-1.6621271 -0.3849313 3.9485641
-1.5921502 -0.39279854 3.9195008
-1.3238125 -0.3577629 3.946847
-1.2559555 -0.32184941 3.9521153
-1.1908298 -0.30240887 3.9467194
-0.919765 -0.31791916 3.9743192
-0.64656031 -0.35638553 3.969202
-0.59221768 -0.34896761 3.9467196
-0.33495528 -0.36953717 3.9249451
-0.29289204 -0.37728602 3.9467673
-1.9236306 -0.25591889 3.9651194
-1.8827868 -0.22105882 3.9195008
-1.4736781 -0.2300451 3.9341867
-1.3015138 -0.26069108 3.9195008
-1.226413 -0.27481896 3.9331481
-1.1405921 -0.26596349 3.9316401
-1.0588025 -0.25281128 3.9628398
-0.97021574 -0.26920819 3.9743192
-0.62602055 -0.26433706 3.9743192
-0.57888383 -0.25306451 3.9523413
-1.9539794 -0.15550235 3.956604
-1.507254 -0.183964 3.974319
-1.4835405 -0.17512089 3.9263058
-1.3015138 -0.13518895 3.9195008
-1.1958278 -0.16491313 3.9195008
-1.0664872 -0.15389401 3.9562724
-0.6343354 -0.10992899 3.9605193
-0.56271255 -0.12470102 3.9633553
-1.954913 -0.049837004 3.9585478
-1.5194912 -0.022897599 3.9195008
-1.1826171 -0.042713724 3.9195008
-1.0473548 -0.061579455 3.9427323
-0.95725107 -0.033089511 3.9503124
-0.62882203 -0.046426509 3.9502487
-0.58142138 -0.049951877 3.9638047
-1.9358864 0.048166241 3.9605827
-1.8959975 0.04315614 3.9195008
-1.5486507 0.032346983 3.9376466
-0.6433658 0.0410011 3.9449255
-0.57236266 0.051579848 3.9432685
-0.47268498 0.074066848 3.9240379
-1.9599564 0.13438994 3.9578354
-1.5128858 0.17526361 3.9195008
-0.62253582 0.13496019 3.9573934
-0.5704537 0.13807826 3.9522965
-0.45416367 0.15094158 3.926785
-2.002888 0.2781812 3.974319
-1.9676869 0.24393737 3.9413521
-2.0157928 0.37358239 3.9529371
-1.9784228 0.34654531 3.9315977
-2.0241399 0.44059676 3.9573643
-1.9884726 0.42626783 3.9195011
-2.0092065 0.54542482 3.9570696
-1.9755222 0.55695933 3.9343824
-2.0118182 0.63539487 3.9743192
-1.9770305 0.64040107 3.9518068
-2.0205932 0.75699294 3.9681859
-1.9671786 0.74625379 3.9352996
-2.0227075 0.84278142 3.9528189
-1.9675152 0.83072168 3.9331105
-2.21102 0.98673809 3.9632792
-2.1553836 0.98305982 3.9674511
-2.0439844 0.96079689 3.9430127
-1.9664161 0.95756358 3.9292221
-2.2037587 1.0432616 3.9549994
-2.1438661 1.04883 3.9414029
-2.0483611 1.0501637 3.9385428
-1.9600699 1.0375307 3.9444733
-1.8959975 1.0603837 3.9195008
-2.2018189 1.1143062 3.9467194
-2.1255605 1.1350415 3.9494388
-2.0509369 1.1448381 3.9700255
-1.9180646 1.1262144 3.9651191
-2.1160746 1.2249478 3.9605193
-2.0507293 1.2369171 3.9743192
-2.9066966 1.7844907 3.9285736
-2.8647563 1.7952479 3.9376466
-2.9156351 1.8350499 3.9313352
-2.8526137 1.8500181 3.9437103
-2.9113941 1.9324795 3.9559195
-2.8519089 1.9057872 3.9536192
-3.372438 2.797071 3.9467194
-3.3589282 2.8551342 3.9361546
-3.3482382 2.9547279 3.9382517
-3.292623 2.9966085 3.9467194
-3.3259311 3.0456803 3.9414594
-3.2884204 3.0660133 3.9565768
-3.3125768 3.1030283 3.9467194
-3.2850239 3.1106896 3.963279
2.9675059 -3.1125565 4.0023069
2.9472711 -3.0923219 4.0023069
-3.7436934 -2.9169536 4.0023069
2.785393 -2.9236987 4.0023069
2.8235178 -2.9531574 4.0117688
-3.7774181 -2.8405111 4.0023074
2.7246888 -2.8360147 4.0023069
-3.8260014 -2.7384949 4.0136614
-3.9063673 -2.6209159 4.0450873
-3.8645341 -2.6518066 4.0142589
-3.9060996 -2.5912106 4.0306921
-3.8890336 -2.573087 4.0235958
2.6235149 -2.5594728 4.0023069
2.5493207 -2.4515541 4.0023074
1.6679411 -2.3145289 4.0489941
1.7062052 -2.3234005 4.0023069
2.4770539 -2.3436353 4.0023074
2.5021062 -2.3908496 4.0023069
1.6693863 -2.2629063 4.0298338
1.7062052 -2.2896757 4.0023069
1.6205896 -2.1826 4.0667844
1.5539874 -1.9432008 4.0366745
1.6106989 -1.9864045 4.0164995
1.4720759 -1.8392683 4.0452247
1.5415709 -1.8730408 4.0258803
-1.5313894 -1.6203665 4.0636549
-1.4566486 -1.615283 4.0193386
1.1432911 -1.6407859 4.0828466
-1.5270278 -1.5758697 4.0264196
-1.4657277 -1.5803218 4.0165
-1.5313584 -1.4937748 4.0023069
-1.3559903 -1.4128357 4.0023069
-1.3425004 -1.3993459 4.0023069
1.5907682 -1.3219055 4.0404243
1.6074365 -1.3372412 4.0594831
1.374833 -1.2004155 4.0594831
1.4684703 -1.2571753 4.0310183
1.5361221 -1.2824211 4.0164995
-2.1249115 -1.1160591 4.0023069
-1.512087 -1.1199133 4.0023074
-1.4841437 -1.1228039 4.0023074
-1.3276722 -1.1433845 4.046083
-1.250581 -1.1406903 4.0428648
-1.1604409 -1.1428865 4.0071721
-1.0416583 -1.110851 4.0100489
-0.985116 -1.1098753 4.0164995
-0.85541403 -1.1115619 4.0126295
1.3748469 -1.1867733 4.0596213
1.4898777 -1.1293057 4.0501595
1.538413 -1.114194 4.0500236
-2.1040919 -1.0489466 4.0770059
-2.0578985 -1.0489454 4.0363455
-1.7382026 -1.0216299 4.0023069
-1.6508732 -1.0613891 4.0308547
-1.5560639 -1.0564017 4.0292287
-1.4350612 -1.0323237 4.0412383
-1.3592579 -1.0566161 4.0602016
-1.2590377 -1.0502024 4.0595555
-1.147465 -1.0509951 4.009645
-1.0519439 -1.0437059 4.0178065
-0.9874897 -1.056644 4.0048881
-0.84178257 -1.0542426 4.0238848
-0.75661588 -1.0274552 4.0307908
1.3527424 -1.0501882 4.0344429
1.434391 -1.0799822 4.0633397
1.5778831 -1.0923001 4.0309639
1.6074365 -1.090955 4.0594831
-2.0258222 -0.94670552 4.055244
-1.9639592 -0.92781705 4.0149231
-1.5014625 -0.98811913 4.0306921
-1.4177384 -0.95142722 4.0712471
-1.342227 -0.95137453 4.0794363
-1.2490069 -0.95475084 4.0508003
-1.1690595 -0.96381646 4.0023074
-1.0511198 -0.98925447 4.0023069
-0.82740223 -0.97587627 4.0043349
-0.74610794 -0.95403421 4.0280504
-0.68807775 -0.93881869 4.0048881
-2.023103 -0.8490631 4.0687943
-1.9726971 -0.85267442 4.046288
-1.7876654 -0.83277225 4.0023069
-1.4174613 -0.86221278 4.030766
-1.3459644 -0.8500157 4.0473475
-1.250344 -0.84650064 4.0325527
-1.1815541 -0.83202779 4.0112033
-0.73745453 -0.85881281 4.0578523
-0.68438888 -0.8463099 4.0375247
-2.033803 -0.75095767 4.0706091
-1.9708331 -0.74593675 4.0250564
-1.4219778 -0.74462259 4.0364504
-1.3436549 -0.75317794 4.0537839
-1.2540187 -0.75306576 4.0672884
-1.157005 -0.77072406 4.0374022
-0.75756741 -0.78109753 4.0667844
-0.64938861 -0.74494851 4.0321388
-2.0463285 -0.65016562 4.0745568
-1.9837484 -0.64848119 4.0306926
-1.3461181 -0.65265304 4.0260792
-1.2583318 -0.64866799 4.046155
-0.63064188 -0.69706315 4.050159
-2.0497193 -0.54916722 4.0820498
-1.9740163 -0.54459119 4.0352774
-1.8105786 -0.52278018 4.0307932
-1.7782484 -0.52208698 4.0165672
-1.3601145 -0.54627079 4.0073895
-1.2512931 -0.55423713 4.0140243
-0.60375327 -0.53210163 4.0235958
-2.0472112 -0.47099587 4.0820498
-1.9662647 -0.4507578 4.0246682
-1.8058608 -0.45261711 4.0289354
-1.7734535 -0.43715253 4.0235963
-1.3358225 -0.4531208 4.0386243
-1.2743647 -0.46517405 4.0492606
-0.64139754 -0.43998668 4.0082202
-2.0054011 -0.34084889 4.0886879
-1.974712 -0.35770941 4.0386548
-1.8003439 -0.39035624 4.0306921
-1.7603196 -0.38402697 4.0117688
-1.6527669 -0.38760725 4.0023069
-1.3266251 -0.37868094 4.0500913
-1.2561569 -0.35954198 4.0194197
-1.0112709 -0.33211106 4.048131
-0.9556666 -0.33356172 4.0205059
-0.66503829 -0.33045667 4.004673
-2.1018682 -0.20303893 4.0886879
-2.0299115 -0.23183995 4.0770335
-1.9607403 -0.24052362 4.0250959
-1.1671324 -0.29317832 4.0023069
-1.03846 -0.23921894 4.0023074
-0.95073301 -0.24168533 4.0303469
-0.89309835 -0.27353701 4.0267529
-0.70745182 -0.26408219 4.0740852
-0.65171921 -0.24536204 4.0300055
-0.58706897 -0.21223922 4.0023069
-2.1261415 -0.15164632 4.0770059
-2.0429115 -0.14568141 4.0267181
-1.9900131 -0.14478998 4.0023069
-1.0360585 -0.14728373 4.0172281
-0.96610129 -0.15395071 4.0636535
-0.6347183 -0.14754605 4.0356488
-0.58376843 -0.15717292 4.0048881
-2.1215503 -0.03887327 4.0807228
-2.0519006 -0.04979274 4.0466871
-1.9900131 -0.05710597 4.0023074
-1.5783707 -0.031931128 4.0538073
-1.0277648 -0.08077988 4.0176544
-0.97453856 -0.058438968 4.0630889
-0.71289068 -0.053605903 4.0789528
-0.67991221 -0.053324956 4.0193658
-2.1177242 0.01285896 4.0838203
-2.0477211 0.04215211 4.0750589
-1.9676822 0.059950087 4.0117693
-1.5905136 0.017258989 4.0498862
-0.71373016 0.049705084 4.0416417
-0.67966324 0.067725532 4.0204444
-2.0441329 0.14779945 4.0571876
-1.9900131 0.16547652 4.0023069
-0.64726466 0.14901483 4.0399961
-0.58706897 0.17222145 4.0023069
-2.1087584 0.29307693 4.0886879
-2.0513783 0.24629803 4.0528784
-2.1374602 0.35056698 4.0805755
-2.066184 0.34852624 4.0204077
-2.1332133 0.45432732 4.0724626
-2.0735803 0.45545742 4.0154085
-2.1250982 0.55383956 4.0803432
-2.0580132 0.55089986 4.0165
-2.1265423 0.65048724 4.0831246
-2.0462425 0.66096091 4.0158825
-2.1338441 0.75096208 4.0760326
-2.0551229 0.74333185 4.0165
-2.1463776 0.85737675 4.0741587
-2.0807545 0.84690624 4.0212307
-2.213764 0.94496 4.0366139
-2.1609242 0.94592619 4.0252519
-2.0919363 0.93140006 4.0023074
-2.1518912 1.0018471 4.0023069
-2.0035031 1.0895312 4.0023069
-1.9697783 1.0929036 4.0023069
-2.0320616 1.1519179 4.0054607
-1.9735745 1.1522548 4.0155802
-2.120415 1.2244296 4.0023074
-2.0456986 1.2228359 4.0068483
-1.9771628 1.2265214 4.0404534
-3.2985284 3.1467328 4.0023069
1.6758188 -2.3256292 4.1383567
1.6350708 -2.2398944 4.1420298
1.6099114 -2.1755919 4.1183162
1.5739671 -2.0093627 4.1333466
1.1672418 -1.9817396 4.1483765
1.4434392 -1.9329288 4.1788793
1.5468233 -1.9380918 4.1250453
1.1664344 -1.8789364 4.1788793
1.3213693 -1.8225964 4.1788793
1.4603624 -1.8908839 4.1536078
1.5167962 -1.8978466 4.1483765
1.188215 -1.7230694 4.1483765
1.2679864 -1.7259316 4.1636829
1.3096318 -1.7533453 4.1788793
1.1743762 -1.664386 4.1243281
1.2283418 -1.6781439 4.151515
1.5335667 -1.3149788 4.1183162
-1.3397709 -1.203932 4.1183162
1.3808773 -1.2178129 4.1183162
1.408639 -1.2178129 4.1183162
1.4888319 -1.1008624 4.1483765
1.5437325 -1.130649 4.1457644
-2.1141899 -1.0347099 4.1399145
-2.0840387 -1.0221785 4.1243281
-1.4091753 -1.0234809 4.1183162
1.4705951 -1.0753405 4.1363525
-2.105346 -0.95088482 4.1650143
-2.0893373 -0.97258443 4.1183162
-1.4250391 -0.9739064 4.1183162
-1.3952943 -0.95407659 4.1183162
-2.1066959 -0.85429114 4.156002
-2.0845461 -0.83284092 4.1363525
-0.72758651 -0.81971318 4.1233268
-2.1165056 -0.74989837 4.15346
-2.0865612 -0.74863988 4.1183162
-1.2217999 -0.73811692 4.1419983
-1.181529 -0.73475897 4.1183162
-0.7172156 -0.77596349 4.1434402
-0.67348975 -0.73198283 4.1183162
-2.1032181 -0.64869773 4.1183162
-1.2327086 -0.68640733 4.1788793
-2.1456745 -0.5330283 4.1636276
-2.1285696 -0.44133472 4.1567554
-2.0657775 -0.43110761 4.1371593
-1.2703667 -0.44048485 4.1183162
-2.1186545 -0.37372059 4.1788793
-2.0603004 -0.35334772 4.150249
-2.2065117 -0.22743206 4.156002
-2.1564851 -0.22605467 4.1451101
-2.0621605 -0.25635794 4.1333833
-0.9094643 -0.20451023 4.1183162
-0.72041184 -0.23392476 4.1485238
-0.6873706 -0.21145067 4.1183162
0.039465379 -0.22753258 4.1585441
-2.2078612 -0.1573818 4.1585441
-2.1611435 -0.14709608 4.1317258
-1.6130033 -0.11596531 4.1788793
-0.93423736 -0.14714469 4.1226106
-0.71303207 -0.13082735 4.154654
0.03494041 -0.18639025 4.1788793
-2.2024632 -0.038216863 4.1483765
-2.1740711 -0.05389113 4.1409168
-1.6199764 -0.063641928 4.160666
-1.0066303 -0.093463361 4.1183162
-0.96895421 -0.083728909 4.126905
-0.73824698 -0.049480185 4.1545653
-2.2031662 0.064465337 4.1585441
-2.1507971 0.048530251 4.1344676
-2.0633106 0.057490971 4.1183162
-0.75159448 0.027072703 4.1535339
-2.210824 0.12844266 4.1674404
-2.1356881 0.14136562 4.1449933
-0.71864605 0.13213204 4.1457644
-0.68937749 0.1569095 4.1303406
-2.2117372 0.28698257 4.1605773
-2.1453121 0.25751105 4.1459818
-2.2040122 0.32664099 4.1303406
-2.1757309 0.34196183 4.1204634
-2.207895 0.45033368 4.1398511
-2.1825373 0.44789007 4.1183162
-2.2080088 0.55482107 4.1521893
-2.1726224 0.54505605 4.1183162
-2.2201884 0.64042324 4.1605773
-2.1785712 0.65511143 4.1183162
-2.2164452 0.77974057 4.1483765
-2.183727 0.72828346 4.1183162
-2.1865032 0.84349453 4.1183162
1.6848371 -2.4014082 4.27314
1.7064412 -2.4158108 4.27314
1.5804176 -2.3113914 4.27314
1.661967 -2.3386111 4.257266
1.4497648 -2.2261999 4.2685843
1.5583894 -2.2471087 4.2595067
1.6258223 -2.2666831 4.2481518
1.3669215 -2.1176631 4.2625103
1.4283298 -2.13819 4.2651677
1.5305518 -2.1983669 4.252038
1.1790788 -2.0261068 4.241251
1.217814 -2.0296741 4.2667623
1.3764139 -2.0919154 4.2414398
1.4467837 -2.0768344 4.2611818
1.5628356 -2.0795557 4.2678251
1.1839764 -1.9668741 4.2368307
1.2023468 -1.9837301 4.27314
1.4492295 -1.9511598 4.241416
1.5287862 -1.9648577 4.2477236
1.2618713 -1.8340353 4.2481518
1.3253206 -1.8303581 4.2382507
1.1892641 -1.7793398 4.2098341
1.2589868 -1.7709256 4.2302184
1.3190504 -1.7797635 4.2188783
1.2554809 -1.6776497 4.2098341
1.5667115 -1.1240778 4.2360935
-2.1215777 -0.91142631 4.2098341
-2.1741438 -0.82126421 4.2571955
-2.1499562 -0.7837224 4.2098341
-1.2441566 -0.71054506 4.2176886
-0.72665715 -0.76528335 4.2255425
-2.2110918 -0.62267542 4.27314
-2.1858008 -0.64837629 4.2519593
-1.2654024 -0.69665223 4.241251
-2.2188513 -0.54190278 4.2603846
-2.1819997 -0.57688588 4.2224011
-2.2213426 -0.43458766 4.2651677
-2.1911929 -0.44711784 4.2255425
-2.2187097 -0.36003473 4.2533274
-2.1482437 -0.33894533 4.2221479
-2.2334619 -0.27227372 4.2445812
-2.1545329 -0.27184016 4.2293501
-1.658625 -0.25952628 4.2529755
-0.75641966 -0.24100398 4.27314
0.073801175 -0.25125206 4.2519431
0.12030525 -0.2424807 4.2528896
-2.2350922 -0.10972965 4.2098341
-1.6322273 -0.16729593 4.2286844
-0.72392946 -0.18067627 4.2098346
0.059790958 -0.16541557 4.2513638
0.11162734 -0.17475669 4.264029
-2.2276957 -0.071374103 4.2188106
-1.6642861 -0.07884647 4.2651677
-0.77082658 -0.03619248 4.2413454
0.050131235 -0.089775681 4.27314
-2.2279949 0.066270538 4.2335148
-0.77745533 0.077504911 4.2308574
-2.2437191 0.15292084 4.2430787
-2.1830647 0.18351632 4.2098341
-0.7515679 0.15683722 4.2255425
0.041414794 0.15628971 4.2667623
0.12934606 0.16227148 4.27314
-2.2440376 0.24378096 4.2488933
-2.1854296 0.21662475 4.2098346
-2.2832201 0.35444474 4.2465658
-2.2735455 0.44602636 4.2323422
-2.2605588 0.55785614 4.2255907
-2.2492816 0.63520974 4.2098341
-2.2534781 0.73591864 4.2176886
2.8067453 -3.1199033 4.3717508
2.7378013 -3.0304279 4.367579
2.6606045 -2.9363091 4.3617392
2.7035997 -2.9872875 4.3717508
2.5857193 -2.8694072 4.3717508
2.6096635 -2.8822999 4.3717504
2.5558519 -2.6319683 4.3614821
2.4853547 -2.5185308 4.3680425
2.5317893 -2.5675836 4.3488073
1.6720457 -2.4369054 4.3467722
1.7096943 -2.4437871 4.305512
2.4499934 -2.4506321 4.3594556
1.4602219 -2.3128829 4.3550644
1.5539018 -2.3345945 4.3457212
1.6458133 -2.3654199 4.321981
2.3760278 -2.3502793 4.3717504
2.4094524 -2.3813653 4.3550644
1.3571806 -2.2089837 4.3383784
1.4459271 -2.2363307 4.3284202
1.5372058 -2.2470214 4.3259058
1.2528889 -2.1379793 4.3585029
1.3531142 -2.1481218 4.3475947
1.4528158 -2.1407843 4.3330407
1.5429611 -2.143889 4.3444643
1.6032742 -2.1293645 4.305512
1.2416567 -2.0258698 4.3452044
1.343531 -2.0522954 4.3680425
1.4688823 -2.0586112 4.3348389
1.5409335 -2.0530498 4.3325405
1.1914581 -1.9701482 4.3383784
1.2343528 -1.9658575 4.3451538
1.3262819 -1.9504948 4.3496714
1.4490991 -1.9773082 4.3219452
1.5162034 -1.9987583 4.305512
1.2535722 -1.8587053 4.321981
1.3275499 -1.8536402 4.305512
0.38432756 -1.7107836 4.3606267
0.44006717 -1.7257394 4.3717504
0.37290111 -1.6652589 4.3634076
0.43124229 -1.6674467 4.3717504
-4.1874986 -1.5285162 4.3717508
0.36891058 -1.5399767 4.3717504
0.41229719 -1.5358838 4.3717504
-4.19241 -1.4474734 4.3717504
0.37218505 -1.4646642 4.3717504
0.41229719 -1.4990461 4.3717508
-4.2071457 -1.3516954 4.3717508
-4.1862707 -1.3455558 4.3717504
-4.2120571 -1.2387266 4.3717504
-4.1811428 -1.2468165 4.3717504
-4.2139463 -1.1420041 4.3717504
-4.17978 -1.1748747 4.3717504
1.5887625 -1.1135381 4.305512
-4.220747 -1.0501934 4.3717504
-2.1988189 -1.0409791 4.305512
-4.2228627 -0.96956611 4.3717504
-4.2387209 -0.85491323 4.3717504
-2.2424705 -0.8359682 4.3717508
-2.1988189 -0.85232562 4.305512
0.34598941 -0.84333575 4.3717508
-4.2366157 -0.79176301 4.3717508
-2.2373073 -0.74570709 4.3480577
0.31651926 -0.70335263 4.3717508
-2.2444472 -0.66182387 4.3319063
0.31651926 -0.68124998 4.3717508
-2.2671208 -0.55069965 4.3290601
0.18506318 -0.50863218 4.3137283
0.23006392 -0.52977878 4.3324027
-2.2568662 -0.45325097 4.305512
0.1791932 -0.43845072 4.3182931
0.23077169 -0.44344747 4.3324485
0.30178422 -0.43812141 4.3717508
-2.3210573 -0.30550587 4.3717508
-2.2445216 -0.31933153 4.3096199
0.17432745 -0.34532762 4.3172498
0.23760167 -0.35437474 4.3515072
0.30178422 -0.37181365 4.3717508
-2.3652625 -0.26130065 4.3717508
-2.2520287 -0.28636518 4.305512
-1.7328656 -0.2428166 4.3462353
-1.6832211 -0.23963752 4.3137283
-0.77092183 -0.22357816 4.3550644
0.079777479 -0.22894864 4.3186584
0.17159407 -0.24309665 4.3363557
0.2320849 -0.24688026 4.3570671
-1.7021846 -0.12868509 4.3717508
-1.6763939 -0.11222351 4.305512
-0.76801282 -0.1204543 4.3386316
0.077944353 -0.14007764 4.3337917
0.15837727 -0.14848481 4.3385377
0.22810888 -0.15078768 4.3717504
-1.7169197 -0.084479891 4.3717508
-0.80568552 -0.025152666 4.305512
-0.77962625 -0.06169435 4.3219452
0.071576305 -0.056642402 4.3430209
0.15183249 -0.056292947 4.3400564
0.22655784 -0.054234236 4.3717504
-2.3004017 0.076429978 4.305512
-0.79721326 0.091635995 4.3383784
0.070681855 0.047959793 4.3542938
0.15131752 0.048462529 4.3377786
0.22810888 0.048135694 4.3717504
-2.3217132 0.16475414 4.3385053
-0.81188309 0.11363231 4.3386316
-0.77962619 0.15692435 4.3219452
0.058380984 0.15344785 4.33251
0.15603402 0.14770305 4.3285127
0.22655158 0.14124472 4.3580093
-2.3269448 0.23136027 4.3551912
-2.2786341 0.22154804 4.305512
-0.78861058 0.21022141 4.3717508
0.064763248 0.23156606 4.3574843
0.14539951 0.21409449 4.3415041
-2.3325844 0.31097475 4.3383784
-2.3149133 0.49727234 4.305512
-2.3149133 0.54080778 4.305512
-1.8348001 3.3782601 4.3717508
-1.8348001 3.4077303 4.3717508
2.847471 -3.2329335 4.4575396
2.7685807 -3.1364288 4.4603286
2.8249366 -3.1708362 4.4401369
2.6839645 -3.023385 4.4576302
2.7307196 -3.0619705 4.4327178
2.5887079 -2.9142416 4.4400592
2.6416407 -2.9592934 4.420732
2.5909142 -2.8916507 4.4056401
2.4877527 -2.633651 4.463367
2.5244625 -2.6399894 4.4194074
1.6786735 -2.52385 4.4576755
2.4618435 -2.5491159 4.4306011
2.511718 -2.5847652 4.4056401
1.5798564 -2.4035227 4.4228497
1.6550257 -2.4618967 4.4125237
2.379931 -2.4293733 4.4206982
2.4216549 -2.4720957 4.4148183
1.5663133 -2.3645008 4.4056401
2.3414946 -2.3474865 4.4145627
1.3719239 -2.2451067 4.4381618
1.4243594 -2.2688215 4.4541521
1.5406164 -2.2292614 4.4171128
2.3177018 -2.2874825 4.4105568
1.1988181 -2.1528652 4.4750204
1.259221 -2.137676 4.4401798
1.3537608 -2.1450813 4.4527535
1.4386498 -2.1292274 4.4426069
1.2646633 -2.0386536 4.4373717
1.3453633 -2.0537417 4.4523144
1.4443771 -2.0604117 4.4449015
1.5663133 -2.0749397 4.4056401
1.2742568 -1.9601033 4.4228497
1.3432869 -1.9665718 4.4459763
-4.2130213 -1.709535 4.4400592
-4.1843371 -1.7269945 4.4400592
0.47241557 -1.7334059 4.4056401
0.54783851 -1.7332392 4.4620352
0.62942964 -1.7154543 4.4750204
-4.2130213 -1.664639 4.4400592
-4.1747098 -1.6409253 4.4446225
0.37324956 -1.6388108 4.4148183
0.45258686 -1.6447569 4.4154735
0.54932499 -1.648789 4.4610367
0.62565887 -1.6702048 4.4750204
-4.2076588 -1.5294377 4.4364758
-4.1750827 -1.5568697 4.4445944
0.3849698 -1.5733635 4.4056401
0.45514598 -1.558623 4.4206982
0.54245806 -1.5546802 4.4571519
-4.2062621 -1.4545077 4.4345489
-4.1806211 -1.4500045 4.4425163
0.39225212 -1.4454492 4.4132886
0.44799855 -1.4504632 4.4259791
0.51670504 -1.459636 4.4688516
-4.2100606 -1.3918723 4.4056401
-4.1687093 -1.3515518 4.4420214
0.38167125 -1.3494061 4.4343224
0.44796064 -1.3511313 4.4383221
0.50499374 -1.3685422 4.4750204
-4.1692524 -1.2518631 4.4408884
0.3691532 -1.2802509 4.4132886
0.43477362 -1.2937135 4.4400592
-4.2193413 -1.1338658 4.4056401
-4.1804075 -1.1511942 4.438055
-4.2185431 -1.0522647 4.413835
-4.1846266 -1.0516272 4.438201
-2.2764592 -1.0551703 4.4575396
-4.2179394 -0.94571698 4.4283352
-4.1766949 -0.94660509 4.4571061
-2.2676704 -0.91648847 4.4403305
0.37837008 -0.90184575 4.4056401
-4.2310114 -0.85012853 4.4173932
-4.1677113 -0.84569275 4.45678
-2.3004696 -0.87079859 4.4750204
-2.2648036 -0.84244859 4.4056401
0.37859347 -0.83809739 4.4194078
0.42023587 -0.83107185 4.4400592
-4.2298102 -0.75429654 4.417995
-4.1593137 -0.75372028 4.4391637
-2.2885578 -0.74887097 4.4228497
-0.76502526 -0.78305143 4.4056401
0.37366304 -0.74808949 4.4372807
0.4112567 -0.75175571 4.4400592
-2.3174717 -0.6346702 4.4402399
0.34773332 -0.6551733 4.4354887
-2.3608024 -0.53142798 4.4750204
0.34661195 -0.54937196 4.4413686
0.33286262 -0.45229617 4.429337
-2.3484018 -0.35523108 4.4401679
0.32333723 -0.38286692 4.4142447
-2.4211349 -0.28255627 4.4750204
-2.3538992 -0.26332626 4.4056401
-1.8274466 -0.24480286 4.447051
-1.7562531 -0.21298979 4.4401498
-0.77987456 -0.2039291 4.4056401
0.25957575 -0.21135375 4.4056401
-1.7453781 -0.16406198 4.463367
-0.80723917 -0.10155861 4.4750204
-0.77987456 -0.16680588 4.4056401
0.036836401 -0.12225799 4.4056401
-1.8111424 -0.070838913 4.4403305
-1.7450784 -0.085134774 4.4056401
-0.80957311 -0.025737612 4.4056401
-0.79472387 -0.085134774 4.4056401
0.064787306 -0.048130851 4.4186149
0.17048001 -0.040586904 4.4056401
0.24472646 -0.062860839 4.4056401
-2.3538992 0.093056709 4.4056401
0.075888306 0.054260504 4.4143124
0.17048001 0.043559074 4.4056401
-0.82504106 0.13153219 4.4489346
-0.0077717155 0.19854082 4.4400592
0.040707126 0.14772232 4.4315224
0.036883254 0.22853328 4.4150271
-2.4060516 0.30568609 4.4750204
-2.1014614 3.3747499 4.4056401
-2.0671937 3.3690388 4.4056401
-1.944059 3.3792045 4.4056401
-1.8712974 3.3636127 4.4056401
-2.1364772 3.4574261 4.4211283
-2.048193 3.4310575 4.4088664
-1.9598422 3.4243093 4.4069638
-1.8787221 3.4192975 4.4056401
2.7394493 -3.1485684 4.5201588
2.6890898 -3.0699599 4.5105367
2.7134142 -3.0897236 4.5105367
1.6930577 -2.5550983 4.5466208
1.4363751 -2.32198 4.5105367
1.2894456 -2.2129467 4.5468149
1.3466603 -2.2327061 4.5387316
1.2496227 -2.1630285 4.5225649
1.3502258 -2.1623499 4.5105367
1.4333675 -2.128305 4.5225649
1.2333236 -2.0953643 4.5466208
1.3476439 -2.0435758 4.5338163
1.4352263 -2.0662122 4.5551715
1.5136106 -2.0813663 4.5832872
0.69143575 -1.9115032 4.5105367
0.722139 -1.9248981 4.5603709
1.3603609 -1.9875174 4.5105367
0.65679699 -1.8344941 4.5285792
0.71466899 -1.8555241 4.57412
0.56981301 -1.7746776 4.5105367
0.64591539 -1.7553957 4.5217552
0.70258796 -1.7801293 4.5832872
0.64970064 -1.6459185 4.5233417
0.56221163 -1.5086278 4.5105367
0.62555677 -1.5770406 4.5105367
0.53433973 -1.4351473 4.5105367
-4.1582718 -1.3109908 4.5105367
-3.808243 -1.3321358 4.5832872
-4.170434 -1.2638619 4.5105367
-3.8267808 -1.2379026 4.5832872
-2.4179184 -1.2162755 4.5832872
-3.8247211 -1.1483039 4.5832872
-3.8159668 -1.0355332 4.5832868
-3.7640407 -1.0481848 4.5735092
-2.3035245 -1.0297381 4.5105367
-3.9009314 -0.90731436 4.5832872
-3.841217 -0.94367832 4.577177
-3.7743492 -0.93290627 4.5722866
-2.314045 -0.96577501 4.5250864
-3.905988 -0.85978103 4.5771756
-3.8507118 -0.85879618 4.5787048
-3.7773471 -0.89186633 4.5832872
-2.3478055 -0.85316497 4.5415492
-0.78631234 -0.80490226 4.5285788
-3.9009314 -0.799178 4.5832872
-3.8343859 -0.7563988 4.5832868
-3.7775319 -0.72260785 4.5710649
-2.3629596 -0.73642272 4.5468144
-0.79587305 -0.7451098 4.5832872
-3.8159671 -0.69104165 4.5832872
-3.7730918 -0.66520435 4.5728111
-2.4179184 -0.62924945 4.5832872
-2.3706815 -0.64114261 4.5225644
-2.4345605 -0.54283369 4.5710645
-2.3795388 -0.58125424 4.5105367
-2.4415023 -0.44350576 4.5792127
-2.3904166 -0.45413128 4.5311561
-2.4461639 -0.35056016 4.575139
-2.3947418 -0.3684144 4.5105367
-2.429224 -0.28707716 4.5466208
-1.8491114 -0.2157484 4.537818
-0.82149887 -0.241376 4.5540705
-1.8342779 -0.15605791 4.5686197
-1.7834445 -0.166563 4.5346899
-0.82127494 -0.15716638 4.5528288
-1.8094321 -0.079560369 4.5105367
-0.8355329 -0.049612388 4.5469122
0.037713457 -0.036485642 4.5105367
0.037964877 0.042292129 4.540607
-2.4697919 0.16569082 4.5649538
-0.83837491 0.1697311 4.5346899
-2.4495554 0.24988097 4.555933
-2.4697919 0.4887405 4.5649538
-2.4797106 0.51390642 4.5832872
1.2611644 -2.2306638 4.6205497
1.2602834 -2.1724865 4.6460075
1.5295559 -2.1212716 4.6712556
1.4475639 -2.0855629 4.6367812
0.77592903 -1.9479914 4.6522155
0.75502098 -1.8958306 4.6205497
-3.8710003 -1.5234746 4.6969223
-3.8295007 -1.4564185 4.6823626
-3.764416 -1.4481355 4.6956391
-3.8292191 -1.3468215 4.6478691
-3.7589858 -1.350222 4.6776724
-3.8264859 -1.2566538 4.6415915
-3.7521925 -1.2518166 4.6566181
-3.6979594 -1.2519158 4.6584229
-2.4936979 -1.2780931 4.6969223
-3.821559 -1.1427106 4.6230745
-3.7562566 -1.150022 4.6288624
-3.6909368 -1.142122 4.6313701
-3.8176408 -1.0452698 4.6205492
-3.747782 -1.0434359 4.6296916
-3.691771 -1.0434998 4.6234627
-3.901499 -0.98477232 4.6205497
-3.813988 -0.95904487 4.6322985
-3.7575691 -0.9486379 4.6525412
-3.6923795 -0.98327798 4.6356993
-2.420413 -0.9339146 4.6776724
-2.3947513 -0.95359099 4.6584229
-3.901499 -0.83163148 4.6205497
-3.8307924 -0.84529781 4.6530643
-3.7743092 -0.86797029 4.6686029
-2.4381843 -0.8636446 4.6815224
-0.81348252 -0.80897737 4.6394863
-0.79321885 -0.81227928 4.6584229
-3.831383 -0.7622422 4.6471453
-3.7616208 -0.74074024 4.6548758
-2.4361792 -0.7604866 4.6776724
-0.82878506 -0.76451969 4.6548233
-0.79321885 -0.77302605 4.6584229
-3.8211501 -0.65982461 4.6732306
-3.759119 -0.64630705 4.652813
-3.6990416 -0.60321802 4.6205497
-2.4654992 -0.64361936 4.6586576
-3.7764657 -0.59246111 4.6584229
-3.6990416 -0.58764434 4.6205497
-2.5210989 -0.54051125 4.6840892
-2.5246289 -0.45331356 4.680881
-2.45315 -0.47862884 4.6205497
-2.5176859 -0.34976357 4.6680479
-2.499871 -0.33846602 4.6205497
-2.4842973 -0.29174507 4.6205497
-0.86017048 -0.24066308 4.6490331
-1.9174845 -0.1627042 4.6739478
-1.8733586 -0.16069101 4.6331739
-0.85602403 -0.19207799 4.6584229
-0.85602403 -0.074318253 4.6584229
-2.5570221 0.17836453 4.6969223
-2.499871 0.19103794 4.6205497
-2.5229259 0.23271783 4.6776724
-2.4842973 0.25333253 4.6205497
-0.85254431 0.21530899 4.6394863
-2.5411911 0.35250619 4.6969223
-2.5307765 0.46927541 4.6776724
-2.5273049 0.57104695 4.6712556
-2.499871 0.53365815 4.6205497
0.78985953 -1.9272634 4.7360635
0.80582249 -1.9512079 4.7360635
-3.8330376 -1.7052214 4.7758622
-3.9092305 -1.6590762 4.7758622
-3.846271 -1.6458018 4.7698331
-3.7911851 -1.6456618 4.7758622
-3.9116101 -1.5666697 4.7559628
-3.8471634 -1.5610154 4.7450509
-3.7779591 -1.5424951 4.742187
-2.5275602 -1.2593309 4.7758622
-2.4985158 -1.240855 4.7360635
-2.4551232 -1.1225052 4.7758622
-2.4551232 -1.0500681 4.7758622
-2.5195115 -0.93202257 4.7758622
-2.4699368 -0.95268947 4.74933
-3.8425994 -0.83858764 4.7360635
-2.5289805 -0.84222585 4.7758627
-2.4779918 -0.84634119 4.7360635
-0.87002391 -0.81898862 4.7519827
-0.79711884 -0.81665981 4.7758622
-2.5418 -0.74731839 4.7758627
-2.4873416 -0.75558013 4.736064
-0.86001343 -0.75225157 4.750988
-0.7904762 -0.78590977 4.7360635
-2.5476751 -0.64783454 4.7544327
-2.4985158 -0.69811338 4.7360635
-2.5709805 -0.55639064 4.7519827
-2.5821333 -0.41844663 4.7625961
-2.5642691 -0.37727675 4.7493296
-2.6160946 -0.14862891 4.7758622
-2.5812421 -0.12034603 4.7708874
-1.9344902 -0.16069283 4.7360635
-2.5549254 -0.072972402 4.7758622
-2.5783308 0.19581388 4.7360635
-2.6160946 0.23770221 4.7758622
-2.5820374 0.25259352 4.7526469
-2.6160946 0.35038212 4.7758622
-2.576479 0.34454131 4.750988
-2.5623677 0.42727718 4.7360635
-2.5999973 0.55159622 4.7758622
-2.5999973 0.64817894 4.7758622
-2.5999973 0.85744166 4.7758622
-2.5999973 0.98621875 4.7758622
0.86809313 -2.0437825 4.878438
0.92168111 -2.0157387 4.8993759
0.86603242 -1.9550201 4.8423347
0.92168117 -1.9551893 4.8993759
0.89710003 -1.8562626 4.8854175
0.92030507 -1.8616133 4.8993759
0.91617668 -1.7873027 4.8993759
-3.8395472 -1.667725 4.8163357
-0.85076088 -1.6139117 4.8993759
-1.0324086 -1.4818043 4.8993759
-0.97369415 -1.4432729 4.8993759
-2.6342118 -1.3496968 4.8993759
-2.5733306 -1.310587 4.8163357
-0.94821674 -1.3822099 4.8742509
-2.6011848 -1.2671295 4.8993759
-2.5681002 -1.2371579 4.8576193
-2.5567429 -1.1432059 4.8884521
-0.76819366 -1.168049 4.8993759
-2.6011848 -1.0359415 4.8993759
-2.5510876 -1.0494114 4.8706312
-2.4921629 -1.0427334 4.8163357
-0.98286831 -1.0524549 4.8993759
-2.6294937 -0.9486562 4.8993759
-2.5647919 -0.96079797 4.8369188
-0.96635491 -0.92860419 4.8993759
-2.6291468 -0.83829314 4.8784385
-2.5733306 -0.86416447 4.8163357
-0.93452382 -0.85610032 4.8576589
-2.6304257 -0.763511 4.8732042
-2.5895641 -0.72617936 4.8163357
-0.92533278 -0.74622142 4.8680582
-0.87692505 -0.7099458 4.8163357
-2.6323171 -0.66026706 4.8485112
-2.5895641 -0.69371223 4.8163357
-0.91574866 -0.64965439 4.8801041
-0.86144185 -0.65303236 4.8476777
-0.78764051 -0.65312839 4.8163357
-2.6426048 -0.54515976 4.8440161
-0.90690649 -0.57686806 4.8993759
-0.87346679 -0.55911613 4.8993759
-2.6512232 -0.45721307 4.8531637
-0.9147504 -0.44145787 4.8993759
-2.6563041 -0.35527569 4.849268
-0.93332803 -0.38366085 4.8993759
-2.7002654 -0.21026978 4.8993759
-2.7002656 -0.15247275 4.8993759
-1.9726894 -0.15800525 4.8163357
-2.7002654 -0.045135435 4.8993759
-2.6355419 -0.054800879 4.8380027
-2.5895641 -0.060603976 4.8163357
-2.6458273 0.0043425472 4.8300576
-2.716779 0.26861987 4.8993759
-2.6532931 0.27040198 4.8214817
-2.6454909 0.35574251 4.8226695
-2.7002652 0.46678105 4.8993759
-2.6591744 0.45320103 4.860435
-2.716779 0.55760497 4.8993759
-2.6690004 0.5528391 4.8575015
-2.7112746 0.6649422 4.8993759
-2.6637659 0.6422351 4.8529277
-2.7002654 0.72273928 4.8993759
-2.6608789 0.74941796 4.8576188
-2.6511183 0.84574473 4.8472099
-2.6419814 0.94787484 4.8404083
-2.7002652 1.0447513 4.8993759
-2.6592698 1.0295341 4.8472099
3.4695246 -2.9192648 4.9853296
3.5031309 -2.9864774 4.9853296
3.4241557 -2.8419704 4.9853292
3.3666055 -2.7386315 4.9853292
3.402312 -2.7848399 4.9853296
3.2846901 -2.6000051 4.9853296
3.3182964 -2.6504147 4.9853292
3.2678869 -2.5607979 4.9853296
3.2174776 -2.4823833 4.9853296
0.88250083 -2.1109996 4.9419789
0.96345574 -2.1223159 4.9853292
1.0431507 -2.1295171 4.9853296
1.1293588 -2.1310976 4.9744916
0.96344399 -2.0594614 4.9582353
1.0408241 -2.063597 4.9853292
1.1450897 -2.0931103 4.9853292
1.2243661 -2.0312831 4.9853292
-3.1313105 -1.9642862 4.9853292
-3.0619106 -1.9779795 4.963654
0.97044992 -1.9562184 4.9528165
1.0518109 -1.9485605 4.9853292
1.1002814 -1.9278795 4.9853296
1.2225854 -1.9754305 4.9817166
0.97153592 -1.8529522 4.9593186
1.0479332 -1.8580819 4.9853292
1.1002814 -1.8858716 4.9853296
-3.1117067 -1.7486458 4.9853296
-3.071099 -1.7136394 4.9853296
0.97313935 -1.7586018 4.9754767
1.0263475 -1.7732904 4.9853296
-3.1047056 -1.6800331 4.9853296
-3.0584965 -1.6506276 4.9853292
-0.99141502 -1.6112887 4.9419789
-0.85815877 -1.6112887 4.9419789
0.98265934 -1.6926354 4.9853296
-3.0612972 -1.5862155 4.9853296
-2.6535411 -1.5313253 4.9853296
-1.0128311 -1.537522 4.9419789
-0.95558304 -1.5452409 4.962956
-0.8493129 -1.5494987 4.9803271
-0.75646597 -1.5414071 4.9853292
-0.68505269 -1.5414071 4.9853296
-3.0332921 -1.4153835 4.9853292
-2.9636791 -1.4189842 4.9853292
-2.7308357 -1.4069819 4.9853296
-2.6636231 -1.4573914 4.9853292
-1.0164006 -1.4946895 4.9419789
-0.94054079 -1.4603273 4.9626217
-0.84735566 -1.4612103 4.9853292
-0.79847389 -1.4573915 4.9853296
-3.0405819 -1.351862 4.9835229
-2.967607 -1.3451159 4.9853292
-2.8391709 -1.3422172 4.9805126
-2.7367604 -1.3520677 4.9756956
-2.6704071 -1.3393569 4.956429
-0.90812987 -1.3947474 4.9419789
-0.81863767 -1.3632939 4.9853296
-0.78167075 -1.3397695 4.9853292
-3.0266318 -1.2490456 4.9557719
-2.9526494 -1.2479048 4.9776807
-2.8543482 -1.2425072 4.9838853
-2.7770441 -1.2473521 4.9853292
-2.6476953 -1.2430135 4.967989
-0.76340902 -1.245275 4.9647946
-3.0283318 -1.1877242 4.9419789
-2.9547637 -1.1709354 4.9664812
-2.8652611 -1.1633364 4.9853292
-2.781245 -1.1801395 4.9853296
-2.6489582 -1.1445982 4.9667506
-1.0413861 -1.1115779 4.9419789
-0.74307328 -1.168236 4.963654
-2.798048 -1.0037065 4.9853296
-2.658185 -1.0572979 4.9672666
-1.1009305 -1.0625174 4.9853296
-1.0428327 -1.0612398 4.9708791
-0.99141502 -1.0282927 4.9419789
-0.71445817 -1.0373127 4.9853296
-2.7888825 -0.93496644 4.9853292
-2.6827259 -0.95755386 4.963654
-1.0001116 -0.9785018 4.9853296
-0.99141502 -0.99497861 4.9419789
-2.8148513 -0.82727349 4.9853296
-2.765326 -0.84540308 4.9853292
-2.673775 -0.8783794 4.9419789
-0.96647388 -0.84657717 4.9506488
-2.7560401 -0.78526562 4.9853296
-2.6904321 -0.73679459 4.9419789
-1.007313 -0.72285396 4.9853292
-0.96732891 -0.74199927 4.9549837
-2.7165875 -0.6475324 4.9593191
-1.0169147 -0.65084046 4.9853292
-0.9658289 -0.64942557 4.9744916
-2.7233086 -0.55705845 4.9593191
-1.1037639 -0.52803242 4.9679894
-1.0535159 -0.5399037 4.9753256
-0.93915135 -0.54471654 4.9540205
-0.8873086 -0.53274602 4.9419789
-2.7070889 -0.47861069 4.9419789
-1.109522 -0.47602078 4.9582353
-1.0742201 -0.45747527 4.9528165
-0.94842225 -0.47088373 4.963654
-0.89147282 -0.46195364 4.9419789
-0.96650535 -0.38199016 4.9853296
-2.7333033 -0.26307648 4.9593191
-2.7644417 -0.056009166 4.9853296
-0.95810097 -0.062184945 4.9419789
-0.97475797 0.021100203 4.9419789
-2.798048 0.17251359 4.9853296
-2.7691526 0.24715851 4.963654
-2.7404032 0.34591225 4.9419789
-2.756429 0.44836438 4.9708791
-2.7862427 0.55021578 4.9817166
-2.7868459 0.64300168 4.9853292
-2.7545784 0.75099957 4.9708791
-2.7476387 0.85304093 4.9853292
-2.9324732 0.94545823 4.9853296
-2.7496948 0.94131106 4.963654
-2.7730308 1.0570109 4.9791365
-2.8148513 1.1554976 4.9853296
-2.7651541 1.1237079 4.956429
3.5862107 -3.2313633 5.0743537
3.5534599 -3.1542096 5.0593863
3.4972739 -3.0398076 5.0743537
3.5247533 -3.0572636 5.0508323
3.4677708 -2.942663 5.0563912
3.5044663 -2.9832406 5.029448
3.3930919 -2.81478 5.0593853
3.4229078 -2.8655257 5.0501733
3.3572395 -2.7514324 5.0507197
3.2844551 -2.628602 5.0580249
3.3171246 -2.6744168 5.0519009
3.246387 -2.5505149 5.0509257
3.1806252 -2.4286475 5.0580239
3.2135406 -2.4771814 5.0519009
3.1449482 -2.3762033 5.0743537
0.96600044 -2.2017505 5.0743537
1.032522 -2.2217376 5.0653729
0.96450096 -2.1693304 5.0519009
1.0514401 -2.1668916 5.0314012
1.1100184 -2.1568384 5.029448
1.0654083 -2.0537891 5.0294485
1.1550673 -2.0553353 5.0369334
-3.3097997 -1.9623058 5.0743537
-3.2552261 -1.9451534 5.0543952
-3.1513052 -1.9424663 5.037765
-3.0883884 -1.9166871 5.029448
1.0252591 -1.9618921 5.029448
1.1585253 -1.9526501 5.0348921
1.2117294 -1.9534162 5.029448
-3.143281 -1.8632233 5.0355725
-3.0541198 -1.8465101 5.029449
-2.9802191 -1.8262774 5.029448
1.0688497 -1.8214341 5.029448
1.1492416 -1.8516841 5.0526762
-3.1206777 -1.7705784 5.029448
-3.0552917 -1.7705783 5.0294485
-2.9753761 -1.7838979 5.029448
1.055251 -1.7473857 5.029449
1.102826 -1.7485158 5.0743537
-2.8228095 -1.6305608 5.0294485
-2.7889059 -1.6059034 5.029448
1.0610464 -1.6511083 5.029448
-2.9075687 -1.5041924 5.029448
-2.8439879 -1.5429738 5.0307698
-2.7550509 -1.5333241 5.039927
-2.6871948 -1.5719997 5.029448
-0.9140318 -1.5686094 5.029448
-0.86995709 -1.5516576 5.029448
-0.76964194 -1.5430821 5.0294485
1.028505 -1.5410929 5.0365391
-2.9394381 -1.4404535 5.029449
-2.8487356 -1.4448608 5.029449
-2.7533379 -1.4556 5.0372586
-2.6871948 -1.4872404 5.029448
-0.83266294 -1.4296043 5.029448
-0.78011227 -1.446556 5.0294485
0.99135548 -1.4702886 5.029448
1.024286 -1.4519857 5.0593853
-2.9407356 -1.3486774 5.029449
-2.8250701 -1.3391944 5.0294485
-2.7483625 -1.3291582 5.0406752
-0.83944374 -1.3855294 5.029448
-0.74176657 -1.346029 5.0339394
-0.68687707 -1.317722 5.029448
1.01731 -1.3979002 5.0743537
-2.9160447 -1.2838184 5.029448
-2.8270473 -1.2372009 5.029448
-2.7504089 -1.2504197 5.0381403
-0.72140855 -1.2555467 5.0422783
-0.6677326 -1.2501111 5.0585051
-2.8214066 -1.1515763 5.0406752
-2.7577336 -1.1617482 5.0555234
-0.71213627 -1.1528691 5.0329027
-0.65864557 -1.1522185 5.047411
-2.7466729 -1.0462419 5.0556426
-1.0767696 -1.0464926 5.029448
-0.71651375 -1.0808342 5.04741
-0.66684407 -1.0763985 5.070611
-2.8058577 -0.97868514 5.029448
-2.7637546 -0.94293988 5.0454865
-1.0161395 -0.95471376 5.0369325
-2.8058577 -0.83176917 5.029448
-2.7578275 -0.86002225 5.0294485
-1.0089622 -0.89392596 5.029448
-2.7574239 -0.75588948 5.029448
-1.0174382 -0.6226964 5.029448
-0.99201035 -0.6226964 5.029448
-2.7719543 -0.54358774 5.029448
-1.1445769 -0.52098536 5.029448
